ply
format ascii 1.0
element vertex 1287
property float x
property float y
property float z
property uchar red
property uchar green
property uchar blue
element face 0
property list uchar int vertex_indices
end_header
0.772516 0.113870 -0.096399 162 104 39
0.775422 0.085953 -0.089355 112 71 35
0.773892 0.057889 -0.078802 133 92 44
0.781925 0.025377 -0.074221 150 101 45
0.778925 -0.004962 -0.061764 142 89 35
0.713036 -0.008455 -0.009241 146 96 44
0.621904 0.006212 0.056902 78 55 32
0.601462 -0.009656 0.078129 70 43 17
0.582177 -0.025188 0.098341 66 40 14
0.560237 -0.037929 0.119692 82 53 36
0.537928 -0.048976 0.140765 105 103 106
0.508939 -0.052983 0.164697 114 113 120
0.451513 -0.028966 0.201450 91 60 44
0.426582 -0.029007 0.220896 90 55 32
0.496857 -0.126477 0.198626 92 51 23
0.456052 -0.111218 0.225343 80 55 40
0.407072 -0.080216 0.253182 62 56 52
0.392011 -0.086600 0.267051 69 68 69
0.319287 -0.008479 0.297683 107 78 56
0.300238 0.000920 0.309397 62 43 27
0.319571 -0.050934 0.311621 51 36 29
0.326134 -0.086268 0.318290 56 47 44
0.315704 -0.092130 0.328374 51 42 38
0.302103 -0.090243 0.338347 41 28 21
0.291342 -0.092566 0.347510 37 27 23
0.279066 -0.089634 0.356100 34 22 17
0.764641 0.095563 -0.126188 156 103 50
0.766499 0.066204 -0.118937 153 104 49
0.771481 0.034261 -0.113532 147 99 44
0.773019 0.001689 -0.105050 151 103 49
0.767208 -0.029385 -0.090850 149 93 37
0.696592 -0.029319 -0.031623 150 97 45
0.594296 -0.005133 0.046946 89 71 61
0.577350 -0.022704 0.066436 88 71 59
0.558553 -0.038323 0.086893 92 80 73
0.535747 -0.049922 0.109508 84 64 53
0.508631 -0.056288 0.134168 89 74 67
0.481163 -0.059841 0.158280 88 75 72
0.328739 0.062544 0.249441 97 68 51
0.506370 -0.144343 0.162486 78 48 29
0.495956 -0.166090 0.177749 80 51 32
0.407538 -0.089305 0.228891 55 43 36
0.382923 -0.083710 0.247864 58 48 44
0.234259 0.109896 0.314502 111 105 106
0.226305 0.111480 0.320700 137 87 49
0.220062 0.111312 0.325988 126 80 41
0.215284 0.109274 0.330609 166 109 59
0.213566 0.101539 0.334371 147 95 44
0.211630 0.093870 0.338296 94 66 47
0.223616 0.052474 0.340661 115 79 47
0.223944 0.035261 0.345550 35 23 18
0.223705 0.017834 0.350980 35 23 15
0.752659 0.105672 -0.163448 158 101 41
0.756198 0.075604 -0.158710 148 100 47
0.774382 0.038974 -0.165470 117 82 47
0.788683 0.000380 -0.168203 116 81 46
0.791477 -0.036484 -0.160998 103 64 28
0.742139 -0.049833 -0.112908 75 46 19
0.530444 0.030841 0.057032 98 68 45
0.455524 0.052176 0.119078 87 73 67
0.434724 0.045121 0.139729 88 63 51
0.393940 0.055003 0.173962 91 65 45
0.378090 0.049012 0.189861 85 62 49
0.358511 0.047827 0.207859 86 69 60
0.327050 0.060740 0.232871 96 70 53
0.396971 -0.032977 0.194442 94 61 30
0.475321 -0.151757 0.155013 87 54 25
0.491768 -0.208338 0.155087 83 52 30
0.398770 -0.116371 0.214824 50 33 30
0.228925 0.113465 0.307596 106 87 77
0.221972 0.113716 0.313810 117 88 64
0.215822 0.113557 0.319407 111 99 93
0.210616 0.112475 0.324396 98 59 33
0.207142 0.108430 0.328601 106 68 38
0.203569 0.104819 0.332782 84 50 27
0.202269 0.095736 0.336353 40 15 0
0.201637 0.084106 0.339993 88 60 33
0.203713 0.063185 0.343639 27 19 11
0.715226 0.093408 -0.172265 0 0 1
0.715849 0.063680 -0.166191 0 0 3
0.714921 0.032933 -0.158379 43 32 19
0.775457 -0.025734 -0.204099 82 59 34
0.785313 -0.068681 -0.204038 98 62 29
0.629442 -0.023373 -0.062551 85 58 30
0.441569 0.060416 0.101429 73 49 28
0.426048 0.049849 0.118906 87 70 54
0.415485 0.036521 0.132180 69 48 32
0.373332 0.050324 0.170094 91 64 50
0.351873 0.050603 0.190912 149 104 83
0.341316 0.042301 0.203050 88 52 25
0.299179 0.070197 0.237782 106 75 53
0.367148 -0.029682 0.194090 94 59 33
0.343526 -0.023318 0.215645 117 87 58
0.251119 0.087432 0.280673 116 98 86
0.226893 0.111820 0.298766 117 104 100
0.217643 0.115905 0.306849 110 89 79
0.211422 0.116073 0.312865 111 94 87
0.206606 0.114383 0.317931 109 70 42
0.202862 0.110948 0.322345 106 74 49
0.199429 0.107080 0.326555 118 77 34
0.196564 0.101929 0.330500 99 63 35
0.194665 0.093941 0.334143 84 55 41
0.193187 0.084043 0.337806 40 26 20
0.196411 0.056589 0.340838 72 17 6
0.686756 0.107564 -0.194867 2 2 3
0.685938 0.078843 -0.188778 7 1 4
0.691310 0.046406 -0.188506 20 15 11
0.682834 0.017499 -0.174352 26 23 15
0.674148 -0.012092 -0.159853 24 14 9
0.661017 -0.040059 -0.140987 44 27 14
0.432418 0.065674 0.079529 56 39 27
0.415217 0.056044 0.099325 93 92 94
0.408707 0.039465 0.109172 57 41 28
0.368352 0.051682 0.149274 90 66 53
0.343702 0.054722 0.174575 154 88 41
0.331859 0.047672 0.188280 153 104 77
0.310596 0.052507 0.209703 134 88 59
0.331863 0.006837 0.195712 99 62 40
0.391418 -0.098502 0.152429 104 68 39
0.236355 0.104043 0.278187 151 146 142
0.225538 0.108692 0.288686 114 94 84
0.214835 0.115288 0.298710 124 114 114
0.208072 0.116496 0.305585 95 68 52
0.203305 0.114685 0.310914 159 171 184
0.199349 0.111645 0.315618 103 68 47
0.195453 0.108887 0.320206 114 96 86
0.192465 0.104019 0.324226 106 93 77
0.190187 0.096971 0.327899 21 21 24
0.188152 0.088688 0.331542 33 27 25
0.186933 0.076608 0.335020 117 73 45
0.659893 0.092668 -0.213887 1 0 1
0.659549 0.062732 -0.209440 1 2 2
0.659291 0.031070 -0.204854 20 16 10
0.649402 0.002186 -0.189748 41 34 22
0.639727 -0.027507 -0.174774 45 34 18
0.604249 -0.041902 -0.132673 65 47 30
0.403742 0.062674 0.080051 90 78 63
0.397965 0.045418 0.088928 98 102 106
0.390699 0.028978 0.099380 71 51 41
0.340888 0.053571 0.152413 192 119 55
0.324546 0.050721 0.171293 151 82 33
0.313346 0.043822 0.184903 134 76 37
0.285457 0.059748 0.214304 95 62 50
0.294066 0.028847 0.208752 80 49 29
0.232670 0.104220 0.268011 145 135 132
0.223123 0.106864 0.278456 127 95 75
0.213440 0.111666 0.288764 92 82 73
0.205683 0.114681 0.297132 116 100 95
0.200314 0.114019 0.303298 106 88 77
0.195986 0.111732 0.308505 99 82 70
0.192049 0.109009 0.313331 115 97 84
0.188817 0.104663 0.317577 127 104 89
0.186268 0.098181 0.321340 44 44 50
0.183664 0.091628 0.325176 51 38 27
0.182298 0.079542 0.328360 59 45 40
0.181483 0.063202 0.331498 51 29 26
0.635791 0.105818 -0.240239 1 3 3
0.632778 0.077140 -0.234130 2 3 2
0.637531 0.043890 -0.237127 17 18 17
0.627483 0.015094 -0.222409 34 34 29
0.617289 -0.014322 -0.207461 44 36 30
0.604940 -0.043136 -0.189928 47 35 24
0.391908 0.069547 0.060943 66 53 44
0.385793 0.052471 0.069863 100 69 27
0.375843 0.038353 0.083219 100 85 64
0.346586 0.043662 0.118533 109 84 54
0.320351 0.050189 0.150050 180 104 51
0.311207 0.040246 0.162068 100 69 48
0.279410 0.061429 0.199144 109 90 81
0.270096 0.056093 0.210980 86 54 36
0.226609 0.108030 0.259744 117 93 77
0.219492 0.106771 0.268550 68 57 48
0.211485 0.108480 0.278193 106 93 81
0.203384 0.112147 0.287785 121 111 110
0.197212 0.113208 0.295240 135 135 138
0.192650 0.111405 0.300968 106 88 79
0.188830 0.108210 0.305908 90 66 55
0.185344 0.104412 0.310491 91 79 73
0.182123 0.099988 0.314802 99 81 72
0.179412 0.093656 0.318652 63 56 55
0.177450 0.083535 0.321906 90 81 83
0.175775 0.070585 0.325049 71 49 41
0.607949 0.090781 -0.260069 0 1 2
0.605913 0.060652 -0.256520 1 2 2
0.604521 0.028495 -0.253764 16 16 15
0.594653 -0.001028 -0.239877 43 42 41
0.583361 -0.030491 -0.224108 32 36 38
0.469215 0.012785 -0.074410 50 37 29
0.373305 0.059768 0.051068 97 73 56
0.369864 0.039748 0.056187 88 75 61
0.329852 0.055762 0.108638 111 99 64
0.322143 0.042497 0.119207 84 65 39
0.312511 0.031698 0.132250 75 53 45
0.297266 0.029351 0.152475 75 56 52
0.259100 0.065035 0.201924 79 55 40
0.222487 0.108534 0.249097 125 98 78
0.215559 0.106905 0.258304 114 78 43
0.208858 0.105998 0.267190 98 81 59
0.201299 0.108427 0.277116 132 131 132
0.194954 0.109698 0.285469 155 180 194
0.189828 0.109124 0.292263 147 179 197
0.185792 0.106248 0.297681 101 97 96
0.181911 0.103483 0.302891 126 127 125
0.178455 0.099675 0.307569 104 93 95
0.175340 0.094716 0.311830 181 196 206
0.172747 0.087100 0.315475 80 62 55
0.170818 0.074725 0.318378 60 10 8
0.169018 0.059116 0.321202 63 10 7
0.584954 0.103744 -0.287679 0 1 4
0.579658 0.075143 -0.281054 1 3 3
0.583081 0.041180 -0.287099 18 23 26
0.571944 0.012304 -0.272114 36 42 47
0.561544 -0.017700 -0.258223 41 36 35
0.542562 -0.042394 -0.231859 42 31 26
0.364070 0.064394 0.027461 83 58 47
0.359988 0.044497 0.032640 177 129 77
0.329433 0.051130 0.076639 109 97 77
0.311142 0.048893 0.102770 113 107 89
0.300859 0.039027 0.117171 143 176 198
0.288319 0.033290 0.134944 153 184 208
0.253295 0.065899 0.186220 105 102 101
0.220228 0.105346 0.234922 141 121 99
0.211538 0.106844 0.247423 91 50 22
0.205294 0.104905 0.256304 123 112 97
0.198364 0.105895 0.266265 105 97 90
0.191770 0.107806 0.275777 122 110 107
0.186789 0.106656 0.282874 151 169 180
0.182505 0.104279 0.288933 135 154 168
0.178455 0.101881 0.294654 153 174 188
0.174606 0.099490 0.300088 65 62 62
0.171622 0.093475 0.304161 99 101 105
0.168566 0.087731 0.308346 127 139 147
0.165803 0.079779 0.312037 58 23 18
0.163192 0.069534 0.315433 70 45 33
0.555098 0.088893 -0.306872 4 2 4
0.551048 0.058726 -0.303669 1 2 3
0.550391 0.025008 -0.306110 35 45 51
0.538288 -0.004004 -0.290261 52 62 69
0.527132 -0.034310 -0.276019 29 25 23
0.418466 0.015843 -0.101831 66 63 60
0.357507 0.042094 -0.004308 103 99 95
0.379032 -0.007877 -0.042924 78 77 79
0.301295 0.053881 0.084343 112 93 32
0.288844 0.046921 0.102998 88 68 20
0.279479 0.036858 0.116532 123 106 67
0.266214 0.034227 0.136897 105 101 103
0.217135 0.102969 0.220301 142 104 76
0.207365 0.106659 0.235879 157 123 91
0.200996 0.104951 0.245610 106 66 35
0.194898 0.103904 0.254990 126 110 96
0.188275 0.106000 0.265506 126 109 107
0.183280 0.104768 0.273150 123 111 111
0.178954 0.102291 0.279626 142 148 154
0.174837 0.099922 0.285787 93 63 44
0.170873 0.097875 0.291744 85 65 50
0.167454 0.093728 0.296636 83 71 66
0.164348 0.087847 0.300863 113 78 51
0.161271 0.081584 0.305006 74 47 31
0.158670 0.069678 0.307831 65 39 27
0.156088 0.053647 0.310201 67 40 22
0.532783 0.101740 -0.335551 1 4 4
0.525762 0.073087 -0.328821 0 1 3
0.528543 0.037877 -0.339864 19 23 28
0.516404 0.008825 -0.324541 48 56 62
0.503538 -0.020329 -0.308005 55 61 66
0.494041 -0.052908 -0.297787 53 48 43
0.380272 0.014573 -0.093029 70 69 66
0.376813 -0.013739 -0.092268 76 65 59
0.351063 -0.016287 -0.049130 113 120 113
0.279845 0.050653 0.083491 114 88 22
0.270268 0.040748 0.097923 127 129 121
0.264761 0.024322 0.104291 79 62 29
0.215140 0.097535 0.201477 164 120 70
0.202955 0.106480 0.223715 136 110 93
0.196285 0.105539 0.234839 111 61 23
0.190646 0.103292 0.243981 92 59 37
0.184423 0.104411 0.254719 109 92 83
0.179275 0.103689 0.263304 179 149 136
0.174967 0.100987 0.270112 144 149 158
0.170819 0.098631 0.276711 123 102 90
0.167052 0.095270 0.282484 120 89 60
0.163331 0.092619 0.288306 89 75 69
0.160014 0.087730 0.293043 72 56 46
0.156967 0.080119 0.296831 60 37 22
0.153917 0.071238 0.300397 62 37 17
0.150646 0.064573 0.304735 42 26 21
0.502784 0.086367 -0.357108 1 2 3
0.497484 0.055683 -0.355505 2 6 9
0.494356 0.021755 -0.358783 34 50 58
0.482303 -0.008095 -0.344479 36 41 45
0.475127 -0.042990 -0.340536 58 61 61
0.399498 -0.011499 -0.192376 99 105 111
0.375319 -0.021554 -0.150380 86 87 88
0.356367 -0.034782 -0.118890 98 97 100
0.277498 0.044152 0.047924 133 128 108
0.262624 0.041683 0.074749 108 89 48
0.258657 0.021298 0.076638 90 80 47
0.219867 0.075855 0.162882 147 172 192
0.199163 0.104112 0.208684 126 105 90
0.191650 0.105362 0.222901 120 92 75
0.185781 0.103866 0.233346 121 91 72
0.180254 0.102879 0.243297 82 59 44
0.174839 0.103391 0.253439 101 69 46
0.170528 0.100686 0.260683 160 135 129
0.166499 0.097660 0.267321 107 83 66
0.162737 0.094007 0.273297 147 156 162
0.159093 0.090474 0.279088 105 87 71
0.155697 0.085349 0.283994 44 27 12
0.152488 0.077588 0.287852 101 70 44
0.149260 0.068158 0.291300 98 62 33
0.145900 0.058330 0.294884 191 127 64
0.142400 0.047541 0.298473 64 47 38
0.480346 0.099385 -0.385903 3 4 6
0.471309 0.070831 -0.378059 8 16 24
0.462839 0.040747 -0.371921 11 19 24
0.459333 0.005419 -0.377747 27 27 30
0.703906 -0.253789 -0.967460 137 191 223
0.790015 -0.424456 -1.204127 137 181 209
0.757279 -0.490069 -1.161879 139 185 214
0.340588 -0.026964 -0.149299 140 180 210
0.305975 -0.012711 -0.074045 129 161 183
0.282845 -0.008792 -0.025806 80 80 83
0.355279 -0.197647 -0.241452 119 127 135
0.392836 -0.354133 -0.374683 139 159 179
0.196341 0.097868 0.188250 84 41 30
0.187374 0.103211 0.208350 111 95 82
0.181669 0.100908 0.219052 78 45 33
0.175868 0.100898 0.230787 114 101 93
0.170661 0.100577 0.241206 109 96 85
0.166039 0.099359 0.250115 116 73 36
0.162079 0.095550 0.256734 101 66 37
0.158271 0.091706 0.263036 91 63 43
0.154574 0.088077 0.269189 94 57 29
0.151055 0.083391 0.274597 76 47 22
0.147719 0.074400 0.278058 75 48 25
0.144279 0.063401 0.280996 62 43 41
0.140584 0.046434 0.282268 59 43 36
0.136491 0.028863 0.284126 53 7 3
0.451667 0.082492 -0.414584 45 41 36
0.461357 0.040449 -0.456269 40 41 40
0.459532 0.001033 -0.471079 42 39 39
0.600707 -0.173307 -0.868618 142 196 229
0.577698 -0.221551 -0.840529 70 80 86
0.436389 -0.122352 -0.478666 82 67 65
0.387084 -0.110210 -0.363164 88 103 115
0.268814 0.032880 -0.031542 117 160 190
0.251655 0.032652 0.006523 128 164 193
0.288393 -0.085015 -0.131543 68 55 41
0.353198 -0.310494 -0.383665 126 140 148
0.201943 0.063227 0.131755 133 134 140
0.182934 0.100114 0.191704 112 84 67
0.177159 0.097668 0.203381 98 64 47
0.171543 0.096660 0.215392 101 80 66
0.166276 0.096461 0.227014 80 66 56
0.161490 0.096129 0.237502 112 100 89
0.157307 0.093621 0.245608 94 67 46
0.153519 0.088632 0.251646 110 90 83
0.149840 0.082941 0.257107 70 52 47
0.146184 0.077908 0.262830 122 108 108
0.142585 0.070677 0.267375 118 117 123
0.138835 0.058037 0.269667 105 110 114
0.134593 0.038910 0.269946 65 34 16
0.130132 0.023455 0.272471 51 12 2
0.125334 0.007107 0.275318 48 3 1
0.428910 0.095804 -0.443642 1 5 9
0.421357 0.064966 -0.443877 49 55 60
0.419638 0.027532 -0.462466 39 40 37
0.390372 0.011937 -0.400057 111 145 161
0.316959 0.050564 -0.196130 136 192 224
0.292955 0.047323 -0.139124 132 178 209
0.270551 0.047474 -0.083981 127 172 202
0.252123 0.046823 -0.039097 119 160 189
0.236667 0.045444 -0.001960 116 151 178
0.223187 0.044113 0.030351 109 140 163
0.222473 0.009715 0.011143 98 104 107
0.234413 -0.077204 -0.071165 147 168 188
0.189786 0.046833 0.114081 76 63 56
0.182335 0.041548 0.129169 94 80 62
0.167353 0.087864 0.194207 123 105 88
0.161699 0.089487 0.209088 117 99 80
0.156673 0.090856 0.222273 112 97 85
0.152302 0.089802 0.232370 104 93 82
0.148364 0.085399 0.239364 93 75 63
0.144614 0.073834 0.241531 75 50 35
0.140634 0.060993 0.243485 73 11 7
0.136422 0.048458 0.246196 78 48 39
0.132092 0.037587 0.250209 75 56 46
0.127801 0.029041 0.255546 66 37 8
0.123415 0.019794 0.260689 70 36 8
0.118844 0.009260 0.265498 54 17 2
0.398474 0.078456 -0.474413 58 52 45
0.402430 0.036291 -0.517343 128 170 191
0.357082 0.035853 -0.393927 143 199 227
0.311757 0.046889 -0.261827 127 169 189
0.281392 0.051046 -0.175797 124 159 183
0.260283 0.049461 -0.119400 112 150 178
0.242102 0.048623 -0.070423 111 141 162
0.226576 0.047835 -0.028654 107 135 155
0.213320 0.046619 0.006592 101 126 142
0.201646 0.045635 0.037699 98 119 135
0.194976 0.029561 0.043650 97 92 79
0.186248 0.022672 0.062219 118 121 125
0.173957 0.042590 0.110940 85 68 54
0.163865 0.064612 0.155264 98 60 34
0.157400 0.069505 0.176636 99 68 44
0.151443 0.081353 0.201923 124 106 85
0.146910 0.081199 0.214174 112 86 66
0.142760 0.080244 0.224772 111 88 69
0.138528 0.063610 0.223643 90 62 42
0.134069 0.050875 0.226106 81 33 21
0.129603 0.041208 0.230925 79 24 12
0.124926 0.029848 0.235031 82 59 46
0.120284 0.020054 0.240233 72 16 10
0.115844 0.012496 0.246591 74 45 10
0.111774 0.007679 0.254024 76 42 8
0.107383 0.000035 0.260181 66 27 1
0.411833 0.068009 -0.637542 112 92 74
0.374223 0.053894 -0.536114 152 198 226
0.340163 0.043980 -0.441550 151 193 220
0.276042 0.079676 -0.212264 82 59 28
0.261719 0.066234 -0.181242 229 194 142
0.248922 0.052303 -0.155341 82 81 82
0.230073 0.053578 -0.096632 29 39 38
0.215769 0.050907 -0.055512 96 102 109
0.203575 0.047429 -0.021588 92 107 117
0.191996 0.047078 0.013407 92 105 116
0.181676 0.047680 0.045460 90 101 113
0.175674 0.028036 0.045243 84 77 73
0.170664 -0.005746 0.028668 81 70 59
0.157718 0.047049 0.117954 87 73 62
0.151927 0.032600 0.121996 91 77 63
0.145791 0.027325 0.135740 78 61 49
0.140423 0.057694 0.180759 92 29 24
0.135958 0.059521 0.196104 99 65 46
0.131516 0.053978 0.204428 119 86 48
0.126802 0.043691 0.209107 99 60 40
0.122080 0.034152 0.214519 91 70 54
0.117131 0.023073 0.219169 77 16 12
0.112244 0.013160 0.224730 81 62 54
0.107259 0.002908 0.230268 81 65 55
0.103271 -0.000829 0.238913 77 48 20
0.100182 -0.000100 0.249024 79 47 21
1.933799 -0.021678 -0.743464 167 110 50
1.891895 -0.084939 -0.692365 168 109 44
0.919560 0.072864 -0.098290 150 103 46
0.876845 0.051289 -0.061818 37 24 6
0.861255 0.023371 -0.041212 115 77 34
0.761044 0.026967 0.024625 131 86 39
0.624926 0.053970 0.106002 92 68 47
0.599769 0.041244 0.127490 174 105 52
0.593051 0.020438 0.139563 148 81 20
0.576715 0.004846 0.156183 96 56 27
0.567410 -0.014492 0.169455 105 86 72
0.556232 -0.032591 0.183531 150 117 93
0.549021 -0.053545 0.195988 134 104 83
0.541009 -0.074188 0.208870 94 58 27
0.533713 -0.095741 0.221602 100 62 28
0.527801 -0.119034 0.234040 98 63 36
0.518700 -0.139619 0.247629 85 44 33
0.451199 -0.094230 0.276339 40 33 33
0.416968 -0.079449 0.293897 50 45 44
0.397229 -0.078957 0.306943 68 57 45
0.385991 -0.088123 0.317809 42 34 32
0.371446 -0.091514 0.328788 36 32 27
0.360728 -0.099537 0.338890 32 23 19
0.349203 -0.105321 0.348717 50 35 25
0.338421 -0.111368 0.358142 44 35 23
0.328197 -0.117487 0.367220 36 29 20
1.848668 -0.054511 -0.772444 169 110 47
1.223097 0.013758 -0.343498 165 109 52
0.880633 0.058124 -0.111029 50 29 15
0.898217 0.018503 -0.110392 141 96 46
1.040602 -0.069616 -0.183587 153 101 46
0.633532 0.053584 0.069013 100 61 28
0.592682 0.046801 0.100808 96 68 43
0.577847 0.029765 0.117261 153 125 106
0.577033 0.005165 0.126132 85 56 30
0.568178 -0.015410 0.139457 81 54 32
0.559141 -0.036032 0.152929 80 57 39
0.549717 -0.056521 0.166635 92 65 43
0.540707 -0.077478 0.180201 95 62 38
0.531332 -0.098295 0.193982 96 60 27
0.522991 -0.120286 0.207412 106 67 30
0.478486 -0.103923 0.234055 105 71 50
0.431415 -0.078700 0.259568 72 60 51
0.416714 -0.086983 0.272977 70 64 61
0.400157 -0.091543 0.286474 55 48 43
0.384942 -0.096320 0.299074 51 41 35
0.372467 -0.103768 0.310594 41 33 27
0.359293 -0.108925 0.321848 36 28 25
0.347114 -0.114465 0.332512 54 37 28
0.335801 -0.120387 0.342678 55 40 30
0.325766 -0.127779 0.352417 41 29 22
0.318542 -0.140534 0.361930 44 30 25
1.803161 -0.023440 -0.852112 163 107 51
1.763377 -0.087399 -0.801466 165 106 45
0.862080 0.071331 -0.148247 65 42 15
1.447752 -0.141621 -0.538966 147 99 49
1.181068 -0.111696 -0.340448 151 100 49
0.721578 0.021255 -0.023422 145 91 35
0.600085 0.045774 0.063671 137 92 44
0.579242 0.030509 0.084597 76 54 32
0.581662 0.003037 0.091156 68 42 16
0.572614 -0.018709 0.104887 69 39 18
0.562935 -0.040232 0.119041 77 42 19
0.552731 -0.061501 0.133526 84 57 38
0.540294 -0.080968 0.149197 105 96 101
0.519501 -0.092469 0.168927 85 52 35
0.490773 -0.094370 0.191886 93 61 43
0.486866 -0.120212 0.202873 98 58 30
0.438901 -0.095081 0.232508 73 56 47
0.421207 -0.101341 0.248213 55 51 49
0.406207 -0.109536 0.262415 51 46 40
0.384321 -0.106079 0.278399 69 61 53
0.370723 -0.112826 0.291065 45 37 31
0.355989 -0.116218 0.303583 38 31 21
0.346390 -0.127374 0.314488 37 31 26
0.333719 -0.131771 0.325709 37 30 25
0.332176 -0.158767 0.335209 42 29 26
0.308461 -0.135779 0.346614 49 46 49
1.715384 -0.056039 -0.879714 162 105 47
1.669346 -0.118233 -0.823903 160 105 45
1.604614 -0.173735 -0.754237 155 104 46
1.194359 -0.106683 -0.428152 143 96 43
1.008009 -0.088632 -0.276615 153 102 49
0.625475 0.036828 0.010087 151 94 34
0.561537 0.041189 0.062586 146 95 45
0.576458 0.006623 0.059582 80 56 35
0.568681 -0.016695 0.072542 78 59 50
0.557735 -0.038214 0.087667 94 80 73
0.546475 -0.059512 0.102995 84 68 60
0.535476 -0.081013 0.118160 92 74 63
0.524925 -0.102954 0.133069 86 75 71
0.446414 -0.055443 0.185913 97 67 48
0.507504 -0.151240 0.161011 77 47 27
0.491698 -0.167496 0.178767 81 51 32
0.431729 -0.124815 0.217369 49 35 29
0.410647 -0.126759 0.235612 53 44 41
0.235509 0.111388 0.317062 104 80 61
0.227042 0.113561 0.323575 99 69 43
0.221664 0.111559 0.328643 214 147 70
0.218784 0.105345 0.332775 78 51 18
0.216475 0.097871 0.336774 87 60 35
0.217516 0.082508 0.340135 43 30 18
0.219714 0.062745 0.343737 51 42 26
0.218932 0.048706 0.348263 52 39 27
1.664498 -0.024000 -0.956235 147 97 48
1.619473 -0.086698 -0.900314 158 102 44
1.563773 -0.145260 -0.835719 152 102 44
1.224015 -0.106179 -0.537323 108 76 40
1.091565 -0.114247 -0.415374 115 80 43
0.660715 0.023978 -0.058368 107 66 30
0.556538 0.045380 0.030853 88 56 27
0.535915 0.030527 0.053122 89 64 41
0.548327 -0.004179 0.050250 90 72 66
0.539908 -0.027292 0.063455 89 71 63
0.511010 -0.034651 0.091413 88 62 44
0.485769 -0.042341 0.116136 87 63 46
0.475568 -0.061888 0.130095 86 63 50
0.388816 -0.001533 0.194131 92 67 51
0.479949 -0.129212 0.142370 97 62 37
0.511964 -0.203719 0.131341 83 54 31
0.473482 -0.192353 0.163464 88 57 35
0.393011 -0.113184 0.217270 46 32 26
0.231037 0.113383 0.309354 137 137 136
0.223284 0.114547 0.316098 104 87 77
0.216141 0.115856 0.322253 107 72 48
0.210660 0.115040 0.327416 113 68 32
0.207602 0.109718 0.331470 82 54 33
0.205266 0.102719 0.335276 96 62 31
0.205012 0.090056 0.338562 103 67 37
0.205759 0.073332 0.341920 36 19 16
0.713668 0.132066 -0.178312 3 2 3
0.717760 0.101267 -0.176034 2 0 2
0.722718 0.068269 -0.174154 2 1 0
0.736460 0.029753 -0.179739 46 36 20
0.709616 0.005795 -0.148603 61 46 26
0.566124 0.042294 -0.015718 81 54 23
0.522579 0.038784 0.027583 82 56 34
0.486960 0.034720 0.063244 79 58 38
0.435349 0.045891 0.111440 127 92 59
0.411791 0.041328 0.135408 70 48 30
0.370022 0.055333 0.173400 99 74 65
0.356016 0.048412 0.188508 155 114 94
0.367301 0.015847 0.184112 90 56 29
0.352027 0.010604 0.200118 100 70 52
0.380355 -0.048620 0.184491 100 65 38
0.412046 -0.120852 0.168227 86 57 34
0.235311 0.113648 0.293249 95 68 42
0.226867 0.114786 0.301274 133 126 125
0.219368 0.115649 0.308432 108 85 74
0.212101 0.117366 0.315188 99 64 39
0.206084 0.117820 0.320981 206 149 94
0.201817 0.115326 0.325662 98 72 51
0.198916 0.109930 0.329599 171 122 62
0.196392 0.103512 0.333376 104 64 21
0.195282 0.092651 0.336677 107 71 36
0.196874 0.071843 0.339362 76 55 41
0.683137 0.146922 -0.198575 1 2 1
0.684579 0.117538 -0.195306 0 1 1
0.687686 0.085974 -0.193441 4 3 2
0.696495 0.050297 -0.196928 6 5 4
0.696237 0.015702 -0.191014 26 18 10
0.676570 -0.011076 -0.165869 23 13 8
0.546396 0.025849 -0.034367 54 31 18
0.484114 0.036031 0.029771 56 39 26
0.419672 0.055710 0.094642 111 108 108
0.399871 0.048442 0.116747 61 42 30
0.358734 0.062272 0.157951 98 75 62
0.344874 0.055352 0.173722 160 89 38
0.328662 0.052372 0.191335 159 114 90
0.317761 0.045052 0.204046 135 86 54
0.310792 0.033578 0.213280 94 60 34
0.294771 0.035306 0.229924 98 63 34
0.230512 0.115772 0.284687 132 105 86
0.222648 0.116123 0.292938 117 97 86
0.214906 0.117603 0.300876 143 146 158
0.208453 0.117932 0.307640 97 67 46
0.202441 0.118496 0.313900 98 65 44
0.198130 0.116095 0.318846 106 71 48
0.194644 0.112097 0.323180 119 84 48
0.191436 0.107581 0.327306 247 179 74
0.189826 0.098074 0.330557 27 26 25
0.188258 0.087605 0.333922 50 39 34
0.654783 0.132661 -0.216110 0 1 0
0.657385 0.101944 -0.215447 3 2 1
0.658713 0.069716 -0.213150 1 1 2
0.663186 0.034167 -0.214053 21 20 13
0.643269 0.008132 -0.188216 39 32 21
0.589474 0.002108 -0.126040 46 34 21
0.490776 0.031156 -0.016712 68 47 28
0.422502 0.052072 0.058818 71 59 46
0.391346 0.052766 0.094332 95 90 92
0.372955 0.045995 0.116147 69 50 40
0.335185 0.060840 0.157543 160 112 68
0.321680 0.054976 0.173668 151 82 35
0.304648 0.055002 0.193124 135 78 32
0.292785 0.050599 0.207198 94 64 49
0.271477 0.061849 0.230212 93 60 38
0.230376 0.110127 0.271458 139 126 122
0.220531 0.113493 0.282307 119 89 68
0.211858 0.116646 0.291844 99 84 77
0.205030 0.117750 0.299514 120 107 104
0.199128 0.118132 0.306213 112 98 91
0.194524 0.116396 0.311678 96 76 63
0.190993 0.112389 0.316186 132 100 80
0.187590 0.108320 0.320556 170 160 162
0.185009 0.101683 0.324290 33 32 37
0.183329 0.091293 0.327440 134 97 55
0.182524 0.076017 0.330167 106 70 35
0.627113 0.147039 -0.237714 3 4 3
0.628202 0.117371 -0.237011 4 3 3
0.628608 0.086109 -0.235352 3 3 4
0.643594 0.046838 -0.251180 7 9 6
0.626068 0.019337 -0.227595 33 33 30
0.603866 -0.005120 -0.198434 43 37 30
0.506581 0.020273 -0.079819 46 36 26
0.441460 0.036378 -0.000357 69 50 35
0.384506 0.055601 0.068784 95 83 72
0.365909 0.048576 0.092278 100 84 64
0.346806 0.044235 0.116215 96 70 27
0.315586 0.056355 0.154006 183 108 55
0.301869 0.052027 0.171277 87 57 41
0.275659 0.067180 0.202659 107 90 82
0.262220 0.068243 0.219214 87 55 35
0.229610 0.104731 0.257040 121 100 89
0.218319 0.110447 0.270616 76 64 58
0.209583 0.113620 0.281206 101 86 72
0.202126 0.115991 0.290269 108 97 90
0.195590 0.117915 0.298223 123 119 121
0.191182 0.115593 0.303836 100 82 70
0.187802 0.110860 0.308346 95 75 63
0.184297 0.106799 0.312964 113 98 94
0.181010 0.102291 0.317342 73 57 49
0.178780 0.093514 0.320708 100 102 106
0.176884 0.082342 0.323825 78 70 65
0.600661 0.132131 -0.258986 1 0 1
0.600682 0.101577 -0.258567 0 1 2
0.600919 0.069025 -0.258409 3 0 0
0.604964 0.032503 -0.263305 30 28 29
0.588140 0.004815 -0.240320 43 44 45
0.488374 0.031368 -0.106808 32 31 29
0.440428 0.035054 -0.042512 40 30 19
0.373438 0.061831 0.047006 91 71 59
0.361296 0.048647 0.063495 101 96 98
0.336437 0.049767 0.096842 115 98 60
0.322098 0.042490 0.116194 91 70 35
0.296722 0.051542 0.150120 70 52 45
0.274225 0.061615 0.180166 78 56 52
0.259734 0.063724 0.199584 84 60 43
0.225923 0.103692 0.244380 129 106 94
0.215782 0.107328 0.257937 110 77 41
0.207223 0.110018 0.269385 102 83 60
0.199271 0.113459 0.280007 131 131 134
0.193148 0.114236 0.288214 160 185 198
0.188172 0.113189 0.294907 144 170 186
0.184054 0.110443 0.300474 169 198 212
0.180952 0.104627 0.304723 126 98 81
0.177686 0.099535 0.309181 79 73 70
0.174524 0.094156 0.313503 63 61 63
0.172185 0.084382 0.316785 70 63 62
0.170485 0.069401 0.319286 56 7 6
0.574200 0.146416 -0.280943 0 3 3
0.573048 0.116791 -0.280624 2 4 2
0.572022 0.085318 -0.280575 1 2 3
0.585570 0.044883 -0.302197 18 17 20
0.568462 0.017007 -0.278524 37 43 50
0.546767 -0.007509 -0.248003 46 44 46
0.438178 0.034409 -0.087671 38 30 24
0.363320 0.067186 0.023035 62 50 43
0.349673 0.055153 0.042390 102 79 57
0.330356 0.050516 0.070355 116 106 93
0.311296 0.048457 0.098064 155 162 160
0.290480 0.052028 0.128594 143 177 198
0.268925 0.060988 0.160449 152 182 203
0.250385 0.069967 0.187907 109 108 107
0.220694 0.105032 0.232831 135 117 96
0.211769 0.106506 0.245919 103 67 39
0.203975 0.107560 0.257337 115 96 80
0.196187 0.110668 0.268839 99 89 84
0.190036 0.111425 0.277847 116 102 99
0.185082 0.110067 0.285012 126 129 134
0.180676 0.107964 0.291343 160 193 212
0.177035 0.103727 0.296459 134 154 165
0.173934 0.097413 0.300692 86 59 41
0.170612 0.092251 0.305301 74 61 58
0.167566 0.085604 0.309438 50 34 29
0.164868 0.076125 0.312937 62 41 27
0.546945 0.131357 -0.303418 0 2 3
0.545702 0.100466 -0.304957 2 2 5
0.543578 0.067948 -0.305282 3 1 5
0.549182 0.028998 -0.318620 33 45 52
0.531713 0.001322 -0.294007 55 63 70
0.453193 0.020419 -0.167048 25 28 28
0.382645 0.046803 -0.051927 38 37 37
0.338420 0.061209 0.019996 90 85 82
0.327751 0.046928 0.035326 105 112 121
0.289310 0.068546 0.098878 124 107 62
0.274502 0.065928 0.122114 91 68 17
0.258201 0.068446 0.148307 120 120 101
0.242396 0.073849 0.174039 82 70 62
0.214835 0.107306 0.221648 151 114 80
0.206597 0.107674 0.234781 119 82 44
0.200122 0.105714 0.244850 108 69 41
0.192905 0.107396 0.256511 125 108 98
0.186479 0.108915 0.266895 150 146 148
0.181249 0.108358 0.275143 121 112 108
0.176995 0.105450 0.281573 149 150 154
0.173094 0.101904 0.287370 90 61 35
0.169386 0.098171 0.292838 89 67 53
0.166166 0.092118 0.297266 108 111 113
0.163036 0.085412 0.301478 107 75 52
0.160178 0.075923 0.304939 60 33 23
0.157549 0.062150 0.307550 60 22 2
0.521914 0.145456 -0.326603 2 3 3
0.519473 0.115474 -0.328067 4 2 5
0.516794 0.083684 -0.329461 5 4 5
0.522500 0.045131 -0.346702 10 14 20
0.513334 0.012292 -0.337033 40 46 49
0.494646 -0.014532 -0.309688 57 61 65
0.392820 0.033347 -0.123787 58 46 39
0.328128 0.066166 -0.005224 93 88 85
0.316590 0.052510 0.012211 167 122 73
0.309561 0.033765 0.020850 123 151 167
0.270244 0.062936 0.094661 160 165 158
0.251296 0.069580 0.128823 106 104 90
0.240261 0.066295 0.147358 77 63 23
0.209921 0.107259 0.207826 119 109 98
0.201517 0.108185 0.222594 141 118 103
0.195118 0.106086 0.233305 101 48 7
0.189676 0.102611 0.242092 87 54 32
0.182482 0.106700 0.255360 98 70 49
0.177198 0.106329 0.264464 149 139 136
0.172563 0.104940 0.272248 115 100 91
0.168636 0.101388 0.278391 132 100 84
0.165001 0.096985 0.283864 173 153 137
0.161717 0.090604 0.288352 51 44 37
0.158532 0.083224 0.292478 28 16 6
0.155353 0.075195 0.296470 92 61 34
0.152289 0.064101 0.299681 244 179 75
0.494487 0.129913 -0.352002 3 4 6
0.492052 0.098417 -0.356089 2 4 2
0.487948 0.065590 -0.357369 5 10 13
0.494945 0.023236 -0.382413 27 36 46
0.482531 -0.009108 -0.367745 40 51 56
0.417900 0.005236 -0.240775 96 117 127
0.338392 0.049268 -0.077270 82 94 102
0.330859 0.027080 -0.069078 119 145 158
0.324025 0.003057 -0.062725 87 87 94
0.291719 0.018112 0.002924 138 162 179
0.248362 0.062923 0.097846 117 96 40
0.240759 0.051439 0.109136 134 150 155
0.221752 0.067193 0.149670 150 184 208
0.196918 0.106767 0.207891 70 36 15
0.189972 0.106179 0.220945 103 76 62
0.184290 0.103494 0.231016 119 93 75
0.178779 0.101792 0.241033 81 62 50
0.172596 0.105328 0.253778 121 83 54
0.167943 0.104193 0.262318 107 76 51
0.163908 0.101197 0.269169 105 81 68
0.160193 0.097202 0.275133 99 74 63
0.156951 0.089604 0.279197 59 34 16
0.153853 0.079337 0.282250 26 10 2
0.150479 0.071292 0.286444 60 34 17
0.147150 0.060062 0.289668 233 164 71
0.143719 0.044100 0.291779 65 42 31
0.469253 0.144331 -0.373946 5 14 14
0.465503 0.113899 -0.377540 1 6 7
0.473222 0.075090 -0.408306 34 37 37
0.479212 0.032372 -0.436919 35 36 36
0.464837 0.000432 -0.418831 38 37 36
0.394216 0.020590 -0.263361 138 191 220
0.354393 0.024277 -0.178580 132 174 201
0.324135 0.025183 -0.114875 138 181 210
0.290127 0.038866 -0.038512 143 192 222
0.270173 0.039260 0.003424 130 159 179
0.254437 0.036930 0.035499 118 144 161
0.243066 0.029089 0.056363 86 78 73
0.272877 -0.082374 -0.047998 109 115 121
0.196289 0.092365 0.178123 63 20 14
0.185258 0.103847 0.205542 122 101 90
0.179155 0.102543 0.217832 95 62 46
0.173657 0.100894 0.228724 99 87 80
0.168395 0.100382 0.239551 99 87 82
0.163298 0.101827 0.250770 87 51 19
0.159084 0.099979 0.258898 74 43 19
0.155217 0.097246 0.265967 94 80 72
0.151820 0.090328 0.270478 67 45 30
0.148514 0.080989 0.273889 86 54 28
0.145276 0.063816 0.274210 89 80 76
0.141629 0.048307 0.276011 51 31 25
0.137689 0.033330 0.278628 56 36 31
0.439504 0.129039 -0.398094 4 6 8
0.446139 0.091384 -0.431941 9 14 13
0.468266 0.038230 -0.509261 41 40 39
0.443544 0.012669 -0.464581 46 47 48
0.374434 0.032346 -0.294933 63 61 60
0.335164 0.036452 -0.202010 59 53 54
0.305223 0.038316 -0.131782 90 76 70
0.278952 0.042597 -0.068863 132 176 204
0.258308 0.044732 -0.020025 118 156 187
0.238635 0.051442 0.028811 124 163 191
0.228093 0.043433 0.049284 101 112 123
0.234187 -0.009865 0.009009 129 145 159
0.398637 -0.608265 -0.665487 133 147 159
0.181345 0.096445 0.183532 125 99 79
0.174888 0.095799 0.198161 107 87 69
0.168500 0.098302 0.214179 105 83 67
0.163455 0.096515 0.224981 98 80 67
0.158687 0.095630 0.235584 106 97 85
0.154390 0.093616 0.244543 118 119 120
0.150455 0.090061 0.251907 101 85 77
0.146751 0.084671 0.257835 101 87 81
0.143126 0.078585 0.263238 142 135 126
0.139467 0.062438 0.263781 95 79 71
0.135307 0.039932 0.262361 60 32 3
0.131052 0.027505 0.266111 58 27 4
0.126505 0.012620 0.269328 52 15 4
0.418475 0.142000 -0.430240 9 12 16
0.411946 0.111462 -0.432533 7 10 10
0.423884 0.066486 -0.491369 51 57 60
0.405111 0.038928 -0.460291 39 43 46
0.353805 0.044882 -0.324548 142 198 229
0.319219 0.044806 -0.235598 129 178 210
0.290121 0.046422 -0.159711 125 170 198
0.266060 0.048447 -0.096533 120 164 195
0.246931 0.048784 -0.047098 117 153 182
0.231078 0.048238 -0.006647 110 144 168
0.216887 0.049092 0.030405 105 133 152
0.214980 0.016223 0.014762 63 53 47
0.352151 -0.564995 -0.701587 117 119 123
0.334705 -0.656426 -0.713856 97 90 88
0.302829 -0.683143 -0.648534 86 72 54
0.176731 -0.005927 0.099336 90 57 31
0.158183 0.090530 0.207370 116 98 77
0.153309 0.090466 0.219870 107 87 71
0.149007 0.087561 0.229125 102 82 64
0.144958 0.084055 0.237352 98 79 64
0.141100 0.075949 0.242212 77 52 40
0.137174 0.065766 0.245947 73 14 7
0.133132 0.055250 0.249773 81 59 49
0.128821 0.041759 0.252432 68 12 4
0.124580 0.031893 0.257178 80 51 24
0.120280 0.022041 0.262084 67 30 4
0.394248 0.122631 -0.479000 33 34 45
0.393544 0.085410 -0.506165 147 162 175
0.363430 0.068507 -0.432716 147 195 222
0.328851 0.061901 -0.338334 121 170 197
0.301369 0.055235 -0.264433 142 198 230
0.272661 0.057814 -0.179753 38 32 27
0.253770 0.052656 -0.129406 92 110 127
0.235011 0.053148 -0.075007 94 104 109
0.220126 0.051272 -0.033621 100 120 134
0.206961 0.050307 0.003528 97 116 129
0.194966 0.051386 0.038913 94 113 125
0.284651 -0.416156 -0.585989 93 87 77
0.290599 -0.623657 -0.765850 85 69 52
0.261968 -0.665063 -0.715887 93 81 74
0.227246 -0.635742 -0.592917 96 70 51
0.199124 -0.630187 -0.507589 103 83 79
0.148821 0.044077 0.166042 94 33 27
0.143046 0.071569 0.204232 109 69 39
0.138747 0.073972 0.218495 109 82 58
0.134667 0.068815 0.226197 95 56 32
0.130521 0.060213 0.231389 87 63 50
0.126284 0.050682 0.236113 77 25 18
0.122006 0.041294 0.241068 78 33 25
0.117480 0.029899 0.245165 74 18 16
0.113225 0.021657 0.250951 83 58 34
0.108912 0.012986 0.256568 81 51 22
0.377252 0.133505 -0.532372 65 37 21
0.359288 0.107112 -0.499780 105 77 59
0.317178 0.103016 -0.367016 109 106 97
0.285273 0.099675 -0.266656 165 148 121
0.264621 0.090938 -0.208109 159 123 99
0.249653 0.078530 -0.171607 246 184 52
0.239034 0.060721 -0.154495 56 51 48
0.220636 0.062481 -0.093026 50 52 46
0.208056 0.056206 -0.058292 16 27 25
0.196212 0.052377 -0.023562 92 104 113
0.184879 0.052558 0.013421 88 99 108
0.175386 0.050651 0.042391 87 100 112
0.244882 -0.573375 -0.792209 77 72 61
0.219733 -0.638710 -0.774283 67 57 43
0.187332 -0.589554 -0.621092 99 87 76
0.163801 -0.654383 -0.607925 88 73 59
0.139367 -0.657588 -0.531697 75 58 47
0.125207 -0.345888 -0.181566 77 63 45
0.129698 0.025841 0.166565 89 49 38
0.126812 0.052144 0.201604 106 68 42
0.122689 0.048497 0.211436 100 76 59
0.117969 0.037415 0.215949 85 18 14
0.113768 0.031321 0.223648 72 23 17
0.109162 0.021652 0.229172 83 69 61
0.104350 0.010788 0.234199 70 21 13
0.100592 0.006843 0.242556 70 18 11
1.850634 0.053218 -0.709055 165 109 55
1.860946 -0.017446 -0.692516 164 108 54
1.870233 -0.091382 -0.674209 167 109 48
1.816648 -0.153184 -0.618009 153 106 51
1.344341 -0.089405 -0.324271 29 12 12
1.065372 -0.050483 -0.151188 117 79 33
0.797502 0.009074 0.007659 137 89 36
0.726207 0.007086 0.055848 90 68 46
0.681867 -0.002116 0.088456 178 115 54
0.651809 -0.015632 0.112973 157 86 25
0.622546 -0.027493 0.136413 90 50 20
0.592965 -0.036953 0.159267 103 84 70
0.561604 -0.042723 0.182086 159 112 75
0.535407 -0.049832 0.201906 136 108 91
0.519901 -0.063960 0.216925 91 59 27
0.500432 -0.073471 0.233056 100 64 31
0.484097 -0.084618 0.247639 86 49 32
0.457844 -0.083662 0.264824 90 55 38
0.360005 0.005269 0.300584 31 30 32
0.331288 0.022053 0.314167 56 54 50
0.314024 0.027456 0.323887 69 58 48
0.305676 0.022118 0.331220 68 67 68
0.299620 0.013868 0.337991 35 29 22
0.295749 0.002168 0.344449 50 36 28
0.292848 -0.011546 0.350927 49 38 29
0.288701 -0.023360 0.357606 46 35 26
1.788842 0.019149 -0.750447 162 108 53
1.794855 -0.052738 -0.732827 165 107 48
1.789601 -0.125317 -0.706888 162 109 52
1.702198 -0.177100 -0.628175 51 29 10
1.517529 -0.191303 -0.490933 140 97 50
0.829302 0.002621 -0.054821 139 93 36
0.735756 0.007073 0.011143 105 71 39
0.705054 -0.010615 0.038640 73 56 34
0.643222 -0.009213 0.082712 153 123 99
0.616321 -0.023120 0.106318 107 85 70
0.597157 -0.040269 0.125346 80 54 32
0.574326 -0.053648 0.145862 84 61 40
0.551785 -0.065603 0.165735 102 71 46
0.529467 -0.076013 0.184975 90 58 32
0.505087 -0.082605 0.204534 96 59 25
0.482043 -0.088253 0.222843 104 59 22
0.383250 -0.006572 0.269007 105 72 49
0.339353 0.024703 0.291051 68 56 49
0.329130 0.019020 0.300144 35 33 29
0.316087 0.018230 0.309772 52 45 40
0.306690 0.013519 0.317974 54 48 42
0.299539 0.006073 0.325394 35 29 26
0.293496 -0.002844 0.332465 35 27 23
0.288835 -0.014133 0.339266 50 37 29
0.283854 -0.024903 0.346138 50 34 24
0.277109 -0.031878 0.353122 42 30 23
1.718360 0.054900 -0.806989 159 107 53
1.723097 -0.015380 -0.791190 161 105 49
1.724684 -0.088262 -0.772223 162 105 46
1.690739 -0.154710 -0.727431 70 47 25
1.673968 -0.226563 -0.694485 147 100 49
1.301521 -0.167274 -0.421535 151 100 48
0.768121 -0.002248 -0.052834 146 92 35
0.727633 -0.018340 -0.016916 146 98 46
0.650795 -0.011517 0.040895 69 48 28
0.626162 -0.028461 0.064730 68 43 16
0.600117 -0.042807 0.088943 67 40 14
0.575435 -0.056197 0.111832 73 42 18
0.554835 -0.070983 0.131935 74 43 21
0.532326 -0.082615 0.152649 79 56 43
0.416237 -0.001561 0.220382 91 65 50
0.343370 0.051845 0.262196 86 58 40
0.349901 0.026058 0.264269 93 56 33
0.357127 -0.002939 0.266691 68 58 51
0.347013 -0.011361 0.276884 48 40 37
0.333000 -0.013355 0.288324 41 31 25
0.314476 -0.006536 0.300827 58 49 44
0.302623 -0.007941 0.310426 39 29 25
0.293325 -0.012391 0.318883 39 30 24
0.285804 -0.019262 0.326632 36 26 19
0.279464 -0.027988 0.333976 36 26 20
0.273995 -0.038366 0.341102 38 27 17
1.650419 0.021534 -0.846149 157 105 51
1.653828 -0.050285 -0.831293 161 105 47
1.652950 -0.124443 -0.812261 159 106 49
1.649787 -0.201131 -0.790690 152 103 49
1.338524 -0.169082 -0.537433 146 99 49
1.123655 -0.146285 -0.362773 143 94 39
0.777968 -0.038816 -0.099239 145 98 39
0.725183 -0.049715 -0.052262 137 90 36
0.617030 -0.022240 0.031705 74 52 30
0.585178 -0.033346 0.061170 77 61 53
0.552331 -0.040859 0.090583 87 71 62
0.520999 -0.046380 0.118234 87 75 70
0.494300 -0.052810 0.142222 82 63 51
0.453731 -0.042804 0.173792 87 69 63
0.338563 0.052932 0.246806 95 69 53
0.386343 -0.021893 0.225175 76 48 30
0.385101 -0.045228 0.231974 75 50 35
0.378345 -0.062312 0.241857 53 42 38
0.360740 -0.063403 0.256898 52 45 45
0.241154 0.102902 0.316209 106 76 52
0.229176 0.110528 0.324379 102 70 49
0.222706 0.110132 0.329905 106 73 33
0.222887 0.097135 0.332959 75 52 18
0.230072 0.067578 0.334221 60 39 27
0.228516 0.055173 0.338587 46 33 22
0.231186 0.031035 0.342301 54 41 27
0.768487 0.175197 -0.189497 33 15 11
1.569636 -0.010268 -0.876138 155 102 50
1.574586 -0.083822 -0.864918 153 102 40
1.564234 -0.156713 -0.839967 151 103 50
1.359357 -0.163485 -0.652798 102 71 38
1.262156 -0.194494 -0.558062 115 82 46
1.151569 -0.210854 -0.454321 107 67 26
0.866696 -0.123098 -0.214822 76 51 26
0.615244 -0.020422 -0.008805 87 61 44
0.560948 -0.017626 0.039817 87 72 64
0.525325 -0.022548 0.073161 91 75 68
0.452558 0.007199 0.132773 90 66 49
0.413600 0.016503 0.166102 88 66 48
0.380141 0.025654 0.194478 88 66 51
0.350781 0.035127 0.219070 90 68 52
0.424622 -0.074631 0.175573 85 54 33
0.423391 -0.103641 0.182884 86 55 32
0.412232 -0.120364 0.196571 79 52 33
0.385371 -0.112410 0.219222 48 36 31
0.232107 0.112112 0.310209 148 155 155
0.223177 0.115248 0.317634 119 115 109
0.217148 0.114363 0.323289 113 71 37
0.213819 0.108646 0.327527 130 87 43
0.211915 0.099715 0.331161 28 12 5
0.210080 0.090153 0.334866 76 47 22
0.208365 0.079709 0.338651 102 73 48
0.675384 0.171815 -0.147199 0 3 3
0.675215 0.143933 -0.142087 3 1 6
0.677316 0.114078 -0.138849 0 3 3
0.682125 0.081612 -0.137803 4 1 1
0.708376 0.038399 -0.155866 45 33 23
0.707723 0.002656 -0.148885 55 41 23
0.833852 -0.102304 -0.253886 73 50 31
0.764189 -0.109274 -0.184372 72 50 31
0.548314 -0.009732 0.009553 84 62 43
0.498266 -0.004102 0.057607 104 78 56
0.430551 0.022781 0.119207 68 47 31
0.379140 0.044706 0.165707 98 73 57
0.355805 0.046003 0.188347 155 116 101
0.348241 0.032813 0.198101 90 57 29
0.329494 0.033522 0.216350 96 70 53
0.484859 -0.197106 0.104988 102 70 42
0.487068 -0.242843 0.110937 82 59 38
0.256276 0.080471 0.279783 96 71 52
0.228278 0.112663 0.301514 128 116 113
0.219681 0.115336 0.309466 174 190 196
0.212394 0.117026 0.316308 97 71 48
0.207879 0.113954 0.321278 95 68 45
0.204631 0.108352 0.325455 78 49 20
0.202344 0.100284 0.329128 98 60 17
0.200292 0.091184 0.332754 104 71 43
0.200467 0.074465 0.335548 116 79 43
0.644551 0.186428 -0.163416 0 2 4
0.643466 0.159517 -0.158556 0 0 1
0.641480 0.131606 -0.152603 5 2 3
0.640549 0.102118 -0.147552 3 2 1
0.650299 0.066997 -0.153054 3 3 0
0.680209 0.019678 -0.178261 25 21 13
0.670731 -0.012953 -0.163710 29 17 7
0.657935 -0.044359 -0.145808 56 33 18
0.522147 0.007319 -0.008892 56 42 26
0.489281 0.000701 0.026883 106 104 110
0.433114 0.017657 0.084126 64 45 32
0.378265 0.041901 0.138967 94 73 57
0.346382 0.051326 0.171488 155 88 39
0.335112 0.042222 0.184697 155 114 94
0.325314 0.032254 0.196465 120 82 55
0.644850 -0.433843 -0.078254 103 69 39
0.584400 -0.408958 -0.017562 90 59 33
0.247725 0.087350 0.271175 100 76 60
0.225113 0.111744 0.291799 113 93 83
0.215346 0.116783 0.301466 152 179 200
0.208835 0.117032 0.308337 92 66 46
0.203490 0.115814 0.314175 93 65 45
0.199579 0.111846 0.318871 92 68 51
0.196711 0.105335 0.322810 156 104 45
0.194394 0.097030 0.326412 185 132 69
0.191723 0.089513 0.330282 18 19 20
0.618348 0.173412 -0.180306 1 2 2
0.615996 0.146049 -0.175024 2 3 6
0.614007 0.117356 -0.170033 3 2 3
0.612811 0.086999 -0.165799 2 3 3
0.656933 0.034743 -0.211590 21 18 16
0.648460 0.001565 -0.198725 39 30 22
0.638019 -0.031397 -0.183617 45 33 22
0.525440 0.004365 -0.057579 73 53 29
0.468988 0.014079 0.006395 68 54 41
0.436892 0.011112 0.043568 88 83 81
0.386358 0.030114 0.099865 74 55 40
0.347035 0.045826 0.143586 177 125 75
0.327311 0.045464 0.166292 148 79 27
0.317735 0.034922 0.178293 132 79 40
0.309623 0.022991 0.188741 88 61 43
0.589071 -0.442747 -0.088586 90 62 39
0.235413 0.100956 0.266697 135 120 110
0.222629 0.109094 0.280625 113 87 71
0.212602 0.114694 0.291622 103 88 76
0.206198 0.114555 0.298997 127 124 120
0.200573 0.113797 0.305534 113 106 104
0.196979 0.108580 0.310157 89 61 44
0.193169 0.104272 0.314943 100 73 56
0.190162 0.097684 0.319020 169 168 171
0.187688 0.089048 0.322678 45 47 51
0.185612 0.078257 0.326081 49 33 22
0.595487 0.186721 -0.203782 1 2 3
0.591999 0.159971 -0.198198 1 2 3
0.588716 0.132055 -0.192815 3 3 2
0.586067 0.102676 -0.188157 1 3 4
0.604140 0.062773 -0.208866 4 6 5
0.624440 0.017007 -0.232082 32 31 29
0.614180 -0.016077 -0.217758 44 39 32
0.588584 -0.039500 -0.184746 38 33 25
0.453665 0.023649 -0.019338 67 48 35
0.424612 0.018106 0.017162 109 101 100
0.379785 0.031892 0.072451 109 95 70
0.348347 0.038979 0.111345 90 68 21
0.322587 0.044743 0.143217 174 118 85
0.311960 0.034868 0.156930 79 51 39
0.297673 0.031450 0.174911 101 87 85
0.497253 -0.322039 -0.057787 86 58 36
0.230257 0.102411 0.255746 113 92 82
0.219369 0.107325 0.269103 65 58 50
0.210176 0.111259 0.280390 101 92 80
0.203015 0.112674 0.289259 106 93 86
0.197607 0.111185 0.296074 109 95 88
0.193153 0.108002 0.301777 95 78 67
0.189525 0.102842 0.306541 106 90 81
0.185512 0.099406 0.311706 143 116 102
0.182544 0.092387 0.315732 91 73 60
0.179653 0.084859 0.319685 138 153 159
0.569404 0.173453 -0.222398 2 2 5
0.565307 0.146074 -0.217045 1 2 2
0.561967 0.117271 -0.212727 2 1 2
0.559076 0.086895 -0.209033 0 2 2
0.598609 0.033374 -0.263060 34 38 42
0.589815 -0.000442 -0.251382 43 44 45
0.573470 -0.030191 -0.229431 34 31 29
0.494473 -0.010700 -0.122123 34 28 23
0.408344 0.028530 -0.004993 92 67 49
0.393379 0.013203 0.015194 75 70 67
0.337172 0.045350 0.091682 117 104 67
0.321414 0.039056 0.113011 92 74 42
0.302699 0.039148 0.138399 77 63 64
0.289272 0.034512 0.156580 78 62 58
0.291461 0.005092 0.153391 81 55 37
0.226103 0.101645 0.242771 133 111 99
0.216013 0.105091 0.256485 106 75 46
0.206954 0.108787 0.268801 91 75 55
0.199588 0.110674 0.278807 133 137 141
0.194081 0.109278 0.286268 143 167 181
0.189347 0.106691 0.292669 128 147 162
0.185119 0.103291 0.298380 172 188 195
0.181635 0.097674 0.303064 126 92 72
0.178084 0.092614 0.307844 169 182 188
0.174779 0.086678 0.312283 48 42 39
0.171893 0.078423 0.316136 73 64 66
0.547650 0.186671 -0.247219 3 5 9
0.542769 0.159763 -0.241815 2 3 5
0.538330 0.131619 -0.237146 2 3 3
0.534041 0.102150 -0.232788 5 4 7
0.549545 0.061352 -0.258454 15 14 21
0.564513 0.015748 -0.283650 39 45 52
0.555002 -0.018624 -0.271903 48 47 48
0.490457 -0.010626 -0.175941 39 34 33
0.405038 0.027254 -0.047109 63 51 42
0.388715 0.011862 -0.024014 111 96 87
0.340276 0.035111 0.049163 121 117 108
0.309714 0.046096 0.095085 135 134 113
0.291930 0.045368 0.121327 149 179 202
0.279266 0.039811 0.139677 124 127 133
0.274778 0.021487 0.145079 107 100 97
0.221630 0.100911 0.228996 132 115 94
0.211535 0.104567 0.244167 93 53 22
0.203548 0.105868 0.256063 111 94 75
0.195799 0.108799 0.267716 73 61 53
0.189883 0.108541 0.276444 109 98 94
0.185212 0.105630 0.283155 105 98 96
0.180919 0.102274 0.289275 166 202 219
0.177012 0.098114 0.294771 108 124 130
0.173286 0.093756 0.299987 86 65 41
0.169731 0.089070 0.304926 132 111 94
0.166581 0.082189 0.309121 47 31 25
0.520991 0.173184 -0.267219 4 4 7
0.516030 0.145448 -0.262938 4 4 5
0.510894 0.116552 -0.258531 3 5 3
0.506853 0.085780 -0.256145 2 2 3
0.539875 0.031543 -0.316794 33 49 57
0.530153 -0.002690 -0.305696 54 64 72
0.514890 -0.033661 -0.285209 36 37 36
0.421171 0.007610 -0.128249 44 45 46
0.384509 0.009414 -0.068777 89 77 68
0.362563 0.000717 -0.034494 78 76 80
0.301864 0.047860 0.069912 121 104 49
0.280223 0.052905 0.105553 92 69 16
0.267002 0.048785 0.126357 121 122 101
0.259758 0.035733 0.136303 101 89 80
0.216842 0.100152 0.214306 148 116 84
0.206330 0.105104 0.231956 129 91 60
0.199405 0.103827 0.242971 105 68 42
0.192266 0.105099 0.254677 119 102 91
0.185751 0.106691 0.265416 141 147 151
0.180790 0.104662 0.273156 119 111 107
0.176390 0.101608 0.279853 99 88 80
0.172397 0.097659 0.285773 150 121 101
0.168498 0.094106 0.291594 161 171 171
0.164802 0.090259 0.297047 117 123 130
0.161498 0.084188 0.301567 34 13 5
0.158416 0.076035 0.305448 56 36 20
0.499228 0.186540 -0.292185 3 4 4
0.493942 0.159158 -0.288599 0 3 5
0.489294 0.130296 -0.286458 3 5 7
0.483940 0.100282 -0.283307 3 4 5
0.499640 0.056445 -0.320360 4 9 12
0.505942 0.012801 -0.340727 34 37 37
0.494358 -0.021235 -0.327393 48 57 61
0.460920 -0.035648 -0.271216 55 41 35
0.377755 0.008925 -0.114530 83 83 82
0.359569 -0.005631 -0.085394 90 84 79
0.309040 0.027847 0.011153 123 145 163
0.273490 0.052469 0.079306 164 179 189
0.257048 0.053775 0.108699 102 98 83
0.247123 0.046014 0.124639 81 68 36
0.221473 0.076589 0.176514 71 65 60
0.201020 0.105262 0.218784 133 120 107
0.194264 0.103605 0.230399 101 54 17
0.188173 0.101688 0.240782 89 58 34
0.181366 0.104490 0.253429 94 65 45
0.176158 0.103401 0.262422 145 118 103
0.171636 0.100828 0.269887 123 121 121
0.167460 0.097783 0.276640 117 86 63
0.163611 0.093911 0.282641 186 187 189
0.159863 0.090456 0.288549 64 49 38
0.156475 0.084682 0.293330 10 3 0
0.153086 0.079500 0.298240 122 89 57
0.472924 0.172510 -0.315905 3 3 7
0.468676 0.143660 -0.316231 3 4 4
0.463780 0.113458 -0.315698 2 5 7
0.465677 0.077584 -0.330092 6 12 17
0.504045 0.012736 -0.424200 10 22 30
0.468902 -0.004862 -0.360967 44 58 66
0.427363 -0.010981 -0.281845 142 181 203
0.401704 -0.026786 -0.236556 138 178 204
0.347601 -0.001850 -0.123689 131 171 195
0.310664 0.013174 -0.047231 120 131 141
0.274363 0.038153 0.030958 138 165 183
0.249148 0.054476 0.084963 114 105 68
0.237579 0.049926 0.106149 127 145 158
